# .PCD v0.7 - Point Cloud Data file format
VERSION 0.7
FIELDS x y z
SIZE 4 4 4
TYPE F F F
COUNT 1 1 1
WIDTH 1517
HEIGHT 1
VIEWPOINT 0 0 0 1 0 0 0
POINTS 1517
DATA ascii
-6.8362708 -3.8031938 12.440353
-6.8094497 -3.8014493 12.434647
-6.78304 -3.7999234 12.429656
-6.7575693 -3.7989137 12.426353
-6.7363267 -3.800283 12.430832
-6.7150712 -3.8016539 12.435317
-6.6937995 -3.8030257 12.439804
-6.6725106 -3.8043978 12.444292
-6.6505175 -3.8053763 12.447493
-6.6268091 -3.8053772 12.447495
-6.6031032 -3.8053789 12.447501
-6.5793939 -3.8053789 12.447501
-6.5556836 -3.8053789 12.447501
-6.5319757 -3.8053796 12.447504
-6.5082664 -3.8053796 12.447504
-6.4842768 -3.8052154 12.446966
-6.4602227 -3.8050117 12.446301
-6.4334078 -3.8031747 12.440291
-6.40661 -3.8013339 12.434271
-6.380373 -3.7998142 12.429299
-6.3542862 -3.7983718 12.424582
-6.3323879 -3.7994328 12.428051
-6.3113031 -3.8009915 12.433149
-6.2902002 -3.8025503 12.43825
-6.2690811 -3.8041117 12.443357
-6.2465105 -3.8048005 12.44561
-6.2228065 -3.8048017 12.445613
-6.1991005 -3.8048017 12.445613
-6.1753979 -3.8048034 12.44562
-6.1523485 -3.8052096 12.446948
-6.1286421 -3.8052108 12.446952
-6.1049366 -3.8052127 12.446958
-6.0813098 -3.8052642 12.447126
-6.0578012 -3.8053894 12.447536
-6.0340929 -3.8053906 12.447539
-6.0103836 -3.8053906 12.447539
-5.9866738 -3.8053906 12.447539
-5.9629641 -3.8053906 12.447539
-5.9409189 -3.806457 12.451028
-5.9190512 -3.807646 12.454918
-5.8973389 -3.8089454 12.459167
-5.8756585 -3.8102756 12.463518
-5.8534594 -3.8112783 12.466799
-5.8296661 -3.8112478 12.466699
-5.8058729 -3.8112168 12.466598
-5.7820826 -3.811188 12.466503
-5.7582326 -3.8111188 12.466277
-5.7321396 -3.8095584 12.461172
-5.7060671 -3.8079989 12.456072
-5.6804962 -3.8067627 12.452028
-5.6549554 -3.805536 12.448015
-5.6311555 -3.8054755 12.447817
-5.6073456 -3.8054075 12.447596
-5.5835218 -3.80533 12.447342
-5.5597014 -3.8052537 12.447092
-5.5339952 -3.8038807 12.4426
-5.5079966 -3.8022945 12.437411
-5.4819875 -3.8006868 12.432154
-5.4564056 -3.7993631 12.427824
-5.4345636 -3.8006427 12.432009
-5.4127045 -3.8019216 12.436192
-5.3908329 -3.8032029 12.440384
-5.3689451 -3.8044839 12.444573
-5.3463593 -3.80528 12.447178
-5.3227353 -3.8053412 12.447377
-5.2990918 -3.805388 12.447531
-5.2752514 -3.8052931 12.447222
-5.2514482 -3.8052251 12.446999
-5.2277393 -3.8052251 12.446999
-5.2040319 -3.8052261 12.447002
-5.1803236 -3.8052261 12.447002
-5.15661 -3.8052225 12.44699
-5.1328082 -3.8051531 12.446762
-5.1090074 -3.8050845 12.446538
-5.0851755 -3.8049915 12.446234
-5.0612264 -3.8048098 12.44564
-5.0375724 -3.8048487 12.445766
-5.0139647 -3.8049233 12.446012
-4.9903564 -3.8049984 12.446257
-4.9667177 -3.8050508 12.446428
-4.944191 -3.8059597 12.449402
-4.9244242 -3.8090124 12.459387
-4.9051781 -3.812499 12.470791
-4.8858972 -3.8159924 12.482219
-4.8665795 -3.8194916 12.493664
-4.8501234 -3.8252819 12.512604
-4.835638 -3.8326907 12.536839
-3.4540439 -3.0713243 10.046388
-3.4349089 -3.0713253 10.046391
-3.4157739 -3.071326 10.046394
-3.3966393 -3.0713272 10.046397
-3.3775029 -3.0713272 10.046397
-3.3583679 -3.0713277 10.0464
-3.339232 -3.0713277 10.0464
-3.320097 -3.0713291 10.046404
-3.3009613 -3.0713291 10.046404
-3.2818258 -3.0713296 10.046406
-3.2626896 -3.0713296 10.046406
-3.2435546 -3.0713305 10.046408
-3.2244201 -3.0713315 10.046412
-3.2052839 -3.0713315 10.046412
-3.1860204 -3.0712085 10.04601
-3.1665089 -3.0708437 10.044817
-3.1464581 -3.0699487 10.041887
-3.1274498 -3.070065 10.042269
-3.1091521 -3.0708857 10.044952
-3.090373 -3.0712376 10.046104
-3.0712388 -3.0712388 10.046108
-3.0521998 -3.0713358 10.046426
-3.0330646 -3.0713367 10.046429
-3.0139284 -3.0713367 10.046429
-2.9947934 -3.0713377 10.046432
-2.9756572 -3.0713377 10.046432
-2.9556541 -3.0704367 10.043486
-2.9352651 -3.0691204 10.039179
-2.9149427 -3.0678577 10.035048
-2.8956413 -3.0676599 10.034401
-2.8765299 -3.0676615 10.034408
-2.8574181 -3.0676627 10.03441
-2.8383055 -3.0676632 10.034413
-2.8191929 -3.0676641 10.034416
-2.800914 -3.0685782 10.037405
-2.781424 -3.0681684 10.036066
-2.7617118 -3.0675068 10.033901
-2.7420566 -3.0668993 10.031914
-2.7229481 -3.0668993 10.031914
-2.7038395 -3.0668993 10.031914
-2.6847312 -3.0668993 10.031914
-2.6656227 -3.0668993 10.031914
-2.6465144 -3.0668993 10.031914
-2.6274061 -3.0668993 10.031914
-2.6080923 -3.0666585 10.031126
-2.5888586 -3.0665078 10.030633
-2.5697527 -3.0665078 10.030633
-2.5509725 -3.0668993 10.031914
-2.5318642 -3.0668993 10.031914
-2.5127554 -3.0668993 10.031914
-2.4936471 -3.0668993 10.031914
-2.4745388 -3.0668993 10.031914
-2.4554303 -3.0668993 10.031914
-2.4363217 -3.0668993 10.031914
-2.4172134 -3.0668993 10.031914
-2.3981049 -3.0668993 10.031914
-2.3789966 -3.0668993 10.031914
-2.3598881 -3.0668993 10.031914
-2.3407798 -3.0668993 10.031914
-2.3216715 -3.0668993 10.031914
-2.302563 -3.0668993 10.031914
-2.2834547 -3.0668993 10.031914
-2.2643461 -3.0668993 10.031914
-2.2444346 -3.0658019 10.028324
-2.2248225 -3.0650988 10.026025
-2.2053871 -3.0646288 10.024487
-2.1858027 -3.0639412 10.022239
-2.1661718 -3.0631769 10.019737
-2.1469169 -3.0629349 10.018946
-2.1278331 -3.0629349 10.018946
-2.1087496 -3.0629349 10.018946
-2.0896659 -3.0629349 10.018946
-2.0705822 -3.0629349 10.018946
-2.0514984 -3.0629349 10.018946
-2.0324147 -3.0629349 10.018946
-2.0133309 -3.0629349 10.018946
-1.9942474 -3.0629349 10.018946
-1.9751637 -3.0629349 10.018946
-1.95608 -3.0629349 10.018946
-1.9369961 -3.0629349 10.018946
-1.9179125 -3.0629349 10.018946
-1.8986492 -3.0626452 10.017998
-1.8787568 -3.0613244 10.013678
-1.8588804 -3.0600028 10.009356
-1.8394519 -3.0593994 10.007381
-1.8202494 -3.0591626 10.006607
-1.8011575 -3.0591085 10.00643
-1.782936 -3.0605478 10.011138
-1.7646974 -3.0619884 10.01585
-1.7461591 -3.0629349 10.018946
-1.7270755 -3.0629349 10.018946
-1.7079487 -3.0628581 10.018694
-1.6886826 -3.062526 10.017609
-1.6696014 -3.062526 10.017609
-1.6504817 -3.0624545 10.017375
-1.6314011 -3.0624545 10.017375
-1.6123202 -3.0624545 10.017375
-1.5928719 -3.0617476 10.015062
-1.5730488 -3.0602946 10.01031
-1.5533103 -3.0589728 10.005987
-1.5342512 -3.0589728 10.005987
-1.5151917 -3.0589721 10.005983
-1.4961709 -3.0590498 10.006238
-1.4772274 -3.0592904 10.007025
-1.458281 -3.0595305 10.007811
-1.4392352 -3.059566 10.007926
-1.4201723 -3.059566 10.007926
-1.4011031 -3.0595517 10.007879
-1.3819318 -3.0593109 10.007092
-1.3627634 -3.0590703 10.006305
-1.3437265 -3.0591221 10.006474
-1.3246666 -3.0591221 10.006474
-1.3056066 -3.0591221 10.006474
-1.2865653 -3.059166 10.006618
-1.2676049 -3.0594075 10.007408
-1.2486075 -3.0595648 10.007923
-1.2295452 -3.059566 10.007926
-1.2104825 -3.059566 10.007926
-1.1913682 -3.0594337 10.007494
-1.1722138 -3.0591919 10.006703
-1.1530688 -3.0589676 10.005969
-1.1340098 -3.0589676 10.005969
-1.1149505 -3.0589666 10.005966
-1.0960517 -3.0594137 10.007428
-1.077507 -3.0608826 10.012234
-1.0589445 -3.0623529 10.017042
-1.0399227 -3.0625248 10.017605
-1.0208417 -3.0625248 10.017605
-1.0017375 -3.0624545 10.017375
-0.98265618 -3.0624528 10.017368
-0.96357548 -3.0624528 10.017368
-0.94442731 -3.0622339 10.016653
-0.92489123 -3.0607224 10.011709
-0.90537441 -3.0592127 10.00677
-0.88624299 -3.0589676 10.005969
-0.86718392 -3.0589676 10.005969
-0.84819353 -3.0592151 10.006779
-0.82953334 -3.0606918 10.01161
-0.81085539 -3.0621715 10.016449
-0.7918492 -3.0624528 10.017368
-0.7727685 -3.0624528 10.017368
-0.75368774 -3.0624528 10.017368
-0.73460698 -3.0624528 10.017368
-0.71552634 -3.0624528 10.017368
-0.69647169 -3.0625672 10.017743
-0.67705035 -3.0610301 10.012716
-0.65764844 -3.0594947 10.007694
-0.63852298 -3.0591919 10.006703
-0.61946261 -3.0591919 10.006703
-0.60039723 -3.0591669 10.00662
-0.58163607 -3.0607405 10.011768
-0.56285566 -3.0623164 10.016923
-0.54393554 -3.0632162 10.019866
-0.52498132 -3.0639818 10.022371
-0.50599772 -3.0646276 10.024483
-0.48698497 -3.0651405 10.02616
-0.46799517 -3.065846 10.028468
-0.44893444 -3.0661268 10.029387
-0.42983085 -3.0661268 10.029387
-0.41072726 -3.0661268 10.029387
-0.39162365 -3.0661268 10.029387
-0.37252006 -3.0661268 10.029387
-0.35341647 -3.0661268 10.029387
-0.33431289 -3.0661268 10.029387
-0.3152093 -3.0661268 10.029387
-0.29610571 -3.0661268 10.029387
-0.2770021 -3.0661268 10.029387
-0.25789851 -3.0661268 10.029387
-0.23879491 -3.0661268 10.029387
-0.21969132 -3.0661268 10.029387
-0.20058772 -3.0661268 10.029387
-0.18148413 -3.0661268 10.029387
-0.16238055 -3.0661268 10.029387
-0.14329471 -3.0665066 10.03063
-0.12418874 -3.0665066 10.03063
-0.10508969 -3.0667078 10.031288
-0.085987806 -3.0668986 10.031911
-0.066879407 -3.0668986 10.031911
-0.047771007 -3.0668986 10.031911
-0.028662603 -3.0668986 10.031911
-0.0095542008 -3.0668986 10.031911
0.0095542008 -3.0668986 10.031911
0.028662603 -3.0668986 10.031911
0.047771007 -3.0668986 10.031911
0.066879407 -3.0668986 10.031911
0.085987806 -3.0668986 10.031911
0.10509621 -3.0668986 10.031911
0.12420461 -3.0668986 10.031911
0.14331302 -3.0668986 10.031911
0.16242144 -3.0668986 10.031911
0.18152982 -3.0668986 10.031911
0.2006382 -3.0668986 10.031911
0.21974665 -3.0668986 10.031911
0.23885503 -3.0668986 10.031911
0.25802058 -3.0675781 10.034134
0.27728882 -3.0693007 10.039768
0.29649371 -3.0701442 10.042528
0.31562233 -3.0701442 10.042528
0.33475095 -3.0701442 10.042528
0.35387957 -3.0701442 10.042528
0.3730081 -3.0701435 10.042525
0.39213669 -3.0701435 10.042525
0.41114938 -3.069278 10.039694
0.43005523 -3.0677271 10.034622
0.44904742 -3.0668986 10.031911
0.46815586 -3.0668986 10.031911
0.48726428 -3.0668986 10.031911
0.50637263 -3.0668986 10.031911
0.52548105 -3.0668986 10.031911
0.54458946 -3.0668986 10.031911
0.56369787 -3.0668986 10.031911
0.58280629 -3.0668986 10.031911
0.60191464 -3.0668986 10.031911
0.62102306 -3.0668986 10.031911
0.64013147 -3.0668986 10.031911
0.65923989 -3.0668986 10.031911
0.6783483 -3.0668986 10.031911
0.69745666 -3.0668986 10.031911
0.71656513 -3.0668986 10.031911
0.73567343 -3.0668986 10.031911
0.7547819 -3.0668986 10.031911
0.77389032 -3.0668986 10.031911
0.79299867 -3.0668986 10.031911
0.81210709 -3.0668986 10.031911
0.83121544 -3.0668986 10.031911
0.85032392 -3.0668986 10.031911
0.86943233 -3.0668986 10.031911
0.88854069 -3.0668986 10.031911
0.90742064 -3.0661268 10.029387
0.92652434 -3.0661268 10.029387
0.94562781 -3.0661268 10.029387
0.96473145 -3.0661268 10.029387
0.98383498 -3.0661268 10.029387
1.0029386 -3.0661268 10.029387
1.0220423 -3.0661268 10.029387
1.0411458 -3.0661268 10.029387
1.0603808 -3.0665066 10.03063
1.0794868 -3.0665066 10.03063
1.0985928 -3.0665066 10.03063
1.1176988 -3.0665066 10.03063
1.1368047 -3.0665066 10.03063
1.1557673 -3.0661268 10.029387
1.174871 -3.0661268 10.029387
1.194033 -3.0662766 10.029878
1.2133836 -3.0668986 10.031911
1.232492 -3.0668986 10.031911
1.2514482 -3.0665257 10.030691
1.2699771 -3.0651329 10.026135
1.2884812 -3.0637217 10.02152
1.3072338 -3.0629349 10.018946
1.3263175 -3.0629349 10.018946
1.3454008 -3.0629337 10.018942
1.3647121 -3.0634449 10.020614
1.3841548 -3.0642321 10.02319
1.4034493 -3.0646751 10.024638
1.4228792 -3.0653977 10.027002
1.4423184 -3.0661204 10.029366
1.4614248 -3.0661268 10.029387
1.4805286 -3.0661268 10.029387
1.4999163 -3.0667078 10.031288
1.519118 -3.0668986 10.031911
1.5382265 -3.0668986 10.031911
1.5571358 -3.0665066 10.03063
1.5762419 -3.0665066 10.03063
1.5954095 -3.0666256 10.031018
1.6146603 -3.0668993 10.031914
1.6337683 -3.0668986 10.031911
1.6528767 -3.0668986 10.031911
1.6719853 -3.0668986 10.031911
1.6910936 -3.0668986 10.031911
1.710202 -3.0668986 10.031911
1.7293105 -3.0668986 10.031911
1.7484188 -3.0668986 10.031911
1.7675273 -3.0668986 10.031911
1.7866355 -3.0668986 10.031911
1.8057441 -3.0668986 10.031911
1.8248523 -3.0668986 10.031911
1.8439608 -3.0668986 10.031911
1.8630693 -3.0668986 10.031911
1.8821781 -3.0668993 10.031914
1.9012866 -3.0668993 10.031914
1.9213365 -3.068403 10.036832
1.9413986 -3.0698965 10.041718
1.960557 -3.0699453 10.041877
1.9797645 -3.0700696 10.042284
1.998933 -3.0701315 10.042486
2.0180616 -3.0701315 10.042486
2.0371895 -3.0701306 10.042484
2.056318 -3.0701306 10.042484
2.0754459 -3.0701299 10.04248
2.0945745 -3.0701299 10.04248
2.113703 -3.0701299 10.04248
2.1328316 -3.0701299 10.04248
2.1519601 -3.0701299 10.04248
2.1710887 -3.0701299 10.04248
2.1902165 -3.0701289 10.042478
2.2093184 -3.0700917 10.042356
2.2283585 -3.0699704 10.04196
2.247432 -3.0698965 10.041718
2.2658694 -3.0689623 10.038662
2.2839694 -3.0675907 10.034175
2.302563 -3.0668993 10.031914
2.3216715 -3.0668993 10.031914
2.3407798 -3.0668993 10.031914
2.3598881 -3.0668993 10.031914
2.3789966 -3.0668993 10.031914
2.3981049 -3.0668993 10.031914
2.418226 -3.0681839 10.036116
2.4387951 -3.0700126 10.042097
2.4577606 -3.0698099 10.041435
2.4757051 -3.0683448 10.036642
2.4936471 -3.0668993 10.031914
2.5129035 -3.06708 10.032505
2.5323362 -3.067471 10.033784
2.551621 -3.0676789 10.034464
2.571631 -3.068749 10.037965
2.5917194 -3.0698965 10.041718
2.6108835 -3.0699396 10.041859
2.6301148 -3.0700612 10.042256
2.6492989 -3.0701258 10.042468
2.6684272 -3.0701258 10.042468
2.6875548 -3.0701251 10.042465
2.7077579 -3.0713439 10.046453
2.7268937 -3.0713434 10.04645
2.7460299 -3.0713434 10.04645
2.7651646 -3.071342 10.046446
2.7843008 -3.071342 10.046446
2.8034368 -3.071342 10.046446
2.8225727 -3.0713415 10.046444
2.8417084 -3.0713415 10.046444
2.8613992 -3.0719371 10.048391
2.882257 -3.0737691 10.054386
2.9031527 -3.0756173 10.060431
2.9224324 -3.0757401 10.060833
2.9411376 -3.0752609 10.059265
2.9589062 -3.0738151 10.054536
2.9766479 -3.0723598 10.049776
2.9941056 -3.0706322 10.044125
21.224709 -19.521866 63.856575
21.337996 -19.514236 63.831615
21.389553 -19.450558 63.623322
21.489985 -19.431789 63.561928
21.57979 -19.403677 63.469971
21.699135 -19.40229 63.465439
21.820021 -19.40229 63.465439
21.940908 -19.40229 63.465439
22.053841 -19.395296 63.442554
22.162294 -19.384459 63.407104
22.270569 -19.373587 63.371544
22.37878 -19.362774 63.336178
22.471977 -19.339153 63.258915
22.564075 -19.314846 63.179405
22.655148 -19.289928 63.097897
22.745552 -19.264702 63.015385
22.870831 -19.269125 63.029854
23.033369 -19.304728 63.146305
23.338938 -19.259125 62.997135
23.344654 -19.165306 62.690254
23.390341 -19.105087 62.493279
23.509377 -19.105087 62.493279
23.62841 -19.105087 62.493279
23.75124 -19.108141 62.503265
23.896816 -19.129372 62.572712
24.044989 -19.152458 62.648232
24.197308 -19.178606 62.733761
24.375572 -19.224958 62.88538
24.823675 -19.387835 63.418152
24.94553 -19.388657 63.420837
25.071064 -19.392315 63.432808
25.200483 -19.398933 63.454456
25.276958 -19.364925 63.343216
25.354115 -19.33176 63.23473
25.410234 -19.282942 63.075047
26.642399 -19.047239 62.304054
26.761074 -19.047239 62.304054
6.6648345 -3.7865698 12.385977
6.9417815 -3.8485527 12.588724
6.942275 -3.835577 12.546281
6.9560976 -3.8300297 12.528134
6.9730587 -3.8262424 12.515746
6.9881239 -3.821444 12.50005
7.0024204 -3.8162594 12.483092
7.0166802 -3.81109 12.466183
7.0297403 -3.8053062 12.447264
7.0431004 -3.7997231 12.429001
7.0615406 -3.7969086 12.419795
7.086329 -3.7975149 12.421779
7.1094708 -3.7972381 12.420873
7.1326084 -3.7969608 12.419966
7.1557436 -3.7966838 12.41906
7.1807499 -3.7973979 12.421396
7.2044091 -3.7973979 12.421396
7.2280693 -3.7973979 12.421396
7.251729 -3.7973979 12.421396
7.2753887 -3.7973979 12.421396
7.2990489 -3.7973979 12.421396
7.3227081 -3.7973979 12.421396
7.3463683 -3.7973979 12.421396
-7.6428819 -3.8884835 12.799084
-7.6196222 -3.8890553 12.800965
-7.5963125 -3.8896048 12.802774
-7.573 -3.8901563 12.804589
-7.0339909 -3.7838838 12.45479
-6.9529037 -3.7784944 12.43705
-6.9316235 -3.7798083 12.441376
-6.910326 -3.781122 12.445699
-6.8883352 -3.7820635 12.448798
-6.8683438 -3.7841139 12.455547
-6.8413696 -3.7823172 12.449633
-6.8151321 -3.7809167 12.445023
-6.788909 -3.779515 12.44041
-6.7627072 -3.7781148 12.435801
-6.7410564 -3.7792566 12.43956
-6.7197852 -3.7806199 12.444047
-6.6987939 -3.7821507 12.449085
-6.6796441 -3.7847364 12.457596
-6.6606092 -3.7874053 12.466381
-6.6369219 -3.7874386 12.46649
-6.6131763 -3.7874386 12.46649
-6.5894308 -3.7874386 12.46649
-6.5643539 -3.7866707 12.463963
-6.5418186 -3.7873685 12.46626
-6.5165634 -3.7864914 12.463373
-6.491323 -3.7856162 12.460491
-6.466094 -3.7847414 12.457613
-6.4379902 -3.782171 12.449152
-6.4119153 -3.7807779 12.444568
-6.3858581 -3.7793856 12.439984
-6.3598199 -3.7779932 12.435402
-6.3334627 -3.776401 12.430161
-6.3113031 -3.7773094 12.433149
-6.2902021 -3.7788594 12.438251
-6.2690811 -3.7804103 12.443357
-6.2465124 -3.7810957 12.445613
-6.2228065 -3.7810957 12.445613
-6.1991034 -3.7810974 12.44562
-6.1773148 -3.7822711 12.449482
-6.1590366 -3.7856123 12.46048
-6.1372385 -3.7868068 12.464411
-6.1138005 -3.7869949 12.46503
-6.0903602 -3.7871833 12.46565
-6.0669179 -3.7873712 12.466269
-6.0455999 -3.788893 12.471277
-6.0237579 -3.7900963 12.475239
-5.9999962 -3.7900963 12.475239
-5.9762335 -3.7900963 12.475239
-5.9501534 -3.7886205 12.470381
-5.9259787 -3.7883511 12.469494
-5.9040794 -3.7895403 12.473408
-5.8821678 -3.7907302 12.477325
-5.86024 -3.7919199 12.481241
-5.8365192 -3.791954 12.481354
-5.8127089 -3.7919307 12.481277
-5.7888989 -3.7919071 12.481199
-5.7658477 -3.7923822 12.482762
-5.7413001 -3.791873 12.481087
-5.715692 -3.7906563 12.477082
-5.6899843 -3.7893634 12.472826
-5.6641932 -3.7880034 12.468349
-5.6400485 -3.7877374 12.467475
-5.6161661 -3.7876465 12.467175
-5.5922852 -3.7875566 12.466879
-5.5684085 -3.7874675 12.466585
-5.5455523 -3.7880754 12.468587
-5.5169191 -3.7847252 12.45756
-5.4885573 -3.781533 12.447052
-5.4625344 -3.7799315 12.441782
-5.4400339 -3.7807643 12.444523
-5.4182439 -3.7821004 12.44892
-5.3971577 -3.7839413 12.454979
-5.3761215 -3.7858338 12.461208
-5.3545933 -3.7873955 12.466349
-5.3305779 -3.7872038 12.465717
-5.3065653 -3.7870119 12.465086
-5.2825537 -3.7868192 12.464452
-5.2570605 -3.785558 12.4603
-5.233326 -3.785558 12.4603
-5.2095928 -3.785558 12.4603
-5.1858587 -3.785558 12.4603
-5.1621246 -3.785558 12.4603
-5.1353354 -3.7833068 12.45289
-5.1114368 -3.783175 12.452457
-5.0875401 -3.7830427 12.452022
-5.0636454 -3.7829108 12.451587
-5.0400381 -3.7829933 12.451859
-5.0163202 -3.7829933 12.451859
-4.9926023 -3.7829933 12.451859
-4.9688845 -3.7829933 12.451859
-4.9486866 -3.785686 12.460722
-4.9301581 -3.7896881 12.473894
-4.9124761 -3.7943819 12.489346
-4.8947501 -3.7990882 12.504836
-4.8736734 -3.8012269 12.511875
-4.8534923 -3.8040886 12.521295
-4.8371511 -3.810003 12.540762
-3.4540451 -3.0521894 10.046391
-3.4349098 -3.0521903 10.046394
-3.4157753 -3.0521913 10.046397
-3.3966393 -3.0521913 10.046397
-3.3775039 -3.052192 10.0464
-3.3583679 -3.052192 10.0464
-3.3392332 -3.0521929 10.046404
-3.320097 -3.0521929 10.046404
-3.3009622 -3.0521939 10.046406
-3.2818267 -3.0521944 10.046408
-3.2626905 -3.0521944 10.046408
-3.2435558 -3.0521955 10.046412
-3.2244201 -3.0521955 10.046412
-3.2052846 -3.0521963 10.046414
-3.1860492 -3.0521014 10.046102
-3.1667857 -3.0519781 10.045695
-3.1475923 -3.0519204 10.045507
-3.1285853 -3.0520449 10.045916
-3.1095762 -3.0521684 10.046322
-3.0904708 -3.0521989 10.046423
-3.0713358 -3.0521998 10.046426
-3.0521998 -3.0521998 10.046426
-3.0330646 -3.0522008 10.046429
-3.0139298 -3.0522017 10.046432
-2.9947934 -3.0522017 10.046432
-2.9756584 -3.0522027 10.046435
-2.9565225 -3.0522027 10.046435
-2.9360554 -3.0508196 10.041883
-2.9155569 -3.0493858 10.037164
-2.8957059 -3.048615 10.034626
-2.8765941 -3.0486164 10.03463
-2.8574822 -3.0486181 10.034636
-2.8383696 -3.048619 10.034639
-2.8192568 -3.04862 10.034642
-2.8001437 -3.0486205 10.034645
-2.780746 -3.0483091 10.033619
-2.7612889 -3.0479276 10.032364
-2.7420566 -3.0477908 10.031914
-2.7229481 -3.0477908 10.031914
-2.7038395 -3.0477908 10.031914
-2.6847312 -3.0477908 10.031914
-2.6656227 -3.0477908 10.031914
-2.6465144 -3.0477908 10.031914
-2.6274061 -3.0477908 10.031914
-2.6082973 -3.0477908 10.031914
-2.5891891 -3.0477908 10.031914
-2.5700808 -3.0477908 10.031914
-2.5509725 -3.0477908 10.031914
-2.5318642 -3.0477908 10.031914
-2.5127554 -3.0477908 10.031914
-2.4936471 -3.0477908 10.031914
-2.4745388 -3.0477908 10.031914
-2.4554303 -3.0477908 10.031914
-2.4363217 -3.0477908 10.031914
-2.4172134 -3.0477908 10.031914
-2.3981049 -3.0477908 10.031914
-2.3789966 -3.0477908 10.031914
-2.3598881 -3.0477908 10.031914
-2.3407798 -3.0477908 10.031914
-2.3216715 -3.0477908 10.031914
-2.302563 -3.0477908 10.031914
-2.2834547 -3.0477908 10.031914
-2.2643461 -3.0477908 10.031914
-2.2452378 -3.0477908 10.031914
-2.2256062 -3.047075 10.029556
-2.2059767 -3.0463486 10.027166
-2.1866307 -3.0460052 10.026036
-2.1670125 -3.0452731 10.023626
-2.1474109 -3.0445514 10.02125
-2.1281712 -3.0443347 10.020537
-2.1090846 -3.0443347 10.020537
-2.0902927 -3.044764 10.021952
-2.0712032 -3.044764 10.021952
-2.0521138 -3.044764 10.021952
-2.0330243 -3.044764 10.021952
-2.0139351 -3.044764 10.021952
-1.9946477 -3.0444622 10.020957
-1.9754773 -3.0443347 10.020537
-1.9563906 -3.0443347 10.020537
-1.9373038 -3.0443347 10.020537
-1.9182171 -3.0443347 10.020537
-1.899035 -3.0441813 10.020033
-1.8793176 -3.043159 10.016668
-1.8594872 -3.0419302 10.012623
-1.8401685 -3.0415223 10.01128
-1.8209816 -3.0413256 10.010633
-1.8017905 -3.0411172 10.009947
-1.782936 -3.0414791 10.011138
-1.7646974 -3.0429106 10.01585
-1.7461591 -3.0438514 10.018946
-1.7270755 -3.0438514 10.018946
-1.7079916 -3.0438514 10.018946
-1.6891763 -3.0443347 10.020537
-1.6700897 -3.0443347 10.020537
-1.6509687 -3.0442717 10.02033
-1.6316569 -3.0438514 10.018946
-1.6125731 -3.0438514 10.018946
-1.5931021 -3.0431113 10.01651
-1.5732144 -3.0415478 10.011364
-1.5533473 -3.0399868 10.006227
-1.5348564 -3.0411127 10.009933
-1.5157897 -3.0411127 10.009933
-1.4967228 -3.0411122 10.00993
-1.4777102 -3.041223 10.010295
-1.45875 -3.0414464 10.01103
-1.4397178 -3.0415227 10.011282
-1.4206482 -3.0415223 10.01128
-1.4015791 -3.0415223 10.01128
-1.3824843 -3.0414653 10.011092
-1.363315 -3.0412412 10.010355
-1.3441898 -3.0411103 10.009924
-1.3251233 -3.0411103 10.009924
-1.3060569 -3.0411103 10.009924
-1.2869904 -3.0411103 10.009924
-1.2680162 -3.0413322 10.010654
-1.2489341 -3.0412979 10.010542
-1.2294793 -3.0403402 10.00739
-1.210418 -3.0403414 10.007393
-1.1913563 -3.0403414 10.007393
-1.1722277 -3.040168 10.006823
-1.1530747 -3.0399246 10.006021
-1.1340098 -3.0399086 10.005969
-1.1149505 -3.0399079 10.005966
-1.0960517 -3.0403519 10.007428
-1.077507 -3.0418119 10.012234
-1.0589445 -3.0432727 10.017042
-1.0400616 -3.0438499 10.018942
-1.020978 -3.0438499 10.018942
-1.0018942 -3.0438499 10.018942
-0.98281056 -3.0438499 10.018942
-0.96372676 -3.0438499 10.018942
-0.94447148 -3.0432968 10.017122
-0.92492312 -3.0417573 10.012054
-0.90539485 -3.0402205 10.006995
-0.88629901 -3.0401011 10.006601
-0.86724281 -3.0401149 10.006648
-0.84823883 -3.0403166 10.007313
-0.82953334 -3.0416224 10.01161
-0.81085539 -3.0430925 10.016449
-0.79197353 -3.0438499 10.018942
-0.77288985 -3.0438499 10.018942
-0.75380617 -3.0438499 10.018942
-0.73472238 -3.0438499 10.018942
-0.71563876 -3.0438499 10.018942
-0.69647169 -3.0434859 10.017743
-0.67705035 -3.0419586 10.012716
-0.65764844 -3.0404327 10.007694
-0.63850927 -3.0400667 10.006489
-0.61945921 -3.0401149 10.006648
-0.60040569 -3.0401495 10.006762
-0.58159065 -3.0414331 10.010986
-0.56279588 -3.042913 10.015859
-0.54398268 -3.0443945 10.020734
-0.52505422 -3.0453143 10.023762
-0.50608325 -3.0460479 10.026177
-0.48704085 -3.0463924 10.027311
-0.46805325 -3.0471225 10.029713
-0.44904742 -3.0477903 10.031911
-0.42993906 -3.0477903 10.031911
-0.41083065 -3.0477903 10.031911
-0.39172226 -3.0477903 10.031911
-0.37261385 -3.0477903 10.031911
-0.35350543 -3.0477903 10.031911
-0.33439708 -3.0477903 10.031911
-0.31528863 -3.0477903 10.031911
-0.29618025 -3.0477903 10.031911
-0.27707183 -3.0477903 10.031911
-0.25796342 -3.0477903 10.031911
-0.23885503 -3.0477903 10.031911
-0.21974665 -3.0477903 10.031911
-0.2006382 -3.0477903 10.031911
-0.18152982 -3.0477903 10.031911
-0.16242144 -3.0477903 10.031911
-0.14331302 -3.0477903 10.031911
-0.12420461 -3.0477903 10.031911
-0.10509621 -3.0477903 10.031911
-0.086007558 -3.0484903 10.034216
-0.06689477 -3.0484903 10.034216
-0.047779046 -3.0483029 10.033599
-0.028662603 -3.0477903 10.031911
-0.0095542008 -3.0477903 10.031911
0.0095563959 -3.0484903 10.034216
0.028669186 -3.0484903 10.034216
0.047781982 -3.0484903 10.034216
0.066879407 -3.0477903 10.031911
0.085987806 -3.0477903 10.031911
0.1051101 -3.048193 10.033237
0.12423095 -3.0484366 10.034039
0.14334342 -3.0484366 10.034039
0.16245587 -3.0484366 10.034039
0.18156832 -3.0484366 10.034039
0.20068078 -3.0484366 10.034039
0.21979325 -3.0484366 10.034039
0.2389057 -3.0484366 10.034039
0.25802258 -3.0484889 10.03421
0.27728882 -3.0501771 10.039768
0.29657882 -3.0518916 10.045412
0.31574899 -3.0522399 10.046558
0.3348853 -3.0522399 10.046558
0.35402155 -3.0522399 10.046558
0.37315789 -3.0522399 10.046558
0.39229408 -3.0522394 10.046556
0.41135311 -3.051666 10.044669
0.43026686 -3.0501139 10.039559
0.44916126 -3.0485628 10.034454
0.46826339 -3.0484903 10.034216
0.48737618 -3.0484903 10.034216
0.50641263 -3.0480309 10.032702
0.52548105 -3.0477903 10.031911
0.54458946 -3.0477903 10.031911
0.56369787 -3.0477903 10.031911
0.58280629 -3.0477903 10.031911
0.60191464 -3.0477903 10.031911
0.62102306 -3.0477903 10.031911
0.64013147 -3.0477903 10.031911
0.65937966 -3.0484366 10.034039
0.67849219 -3.0484366 10.034039
0.69760466 -3.0484366 10.034039
0.71656513 -3.0477903 10.031911
0.73567343 -3.0477903 10.031911
0.7547819 -3.0477903 10.031911
0.77389032 -3.0477903 10.031911
0.79299867 -3.0477903 10.031911
0.81210709 -3.0477903 10.031911
0.83121544 -3.0477903 10.031911
0.85032392 -3.0477903 10.031911
0.86943233 -3.0477903 10.031911
0.88854069 -3.0477903 10.031911
0.9076491 -3.0477903 10.031911
0.92675751 -3.0477903 10.031911
0.94586587 -3.0477903 10.031911
0.96497428 -3.0477903 10.031911
0.98408276 -3.0477903 10.031911
1.0031911 -3.0477903 10.031911
1.0222995 -3.0477903 10.031911
1.0414078 -3.0477903 10.031911
1.0605164 -3.0477903 10.031911
1.0796248 -3.0477903 10.031911
1.0987331 -3.0477903 10.031911
1.1178415 -3.0477903 10.031911
1.13695 -3.0477903 10.031911
1.1560583 -3.0477903 10.031911
1.1751667 -3.0477903 10.031911
1.1942751 -3.0477903 10.031911
1.2133836 -3.0477903 10.031911
1.232492 -3.0477903 10.031911
1.2516004 -3.0477903 10.031911
1.2702699 -3.0467377 10.028447
1.288779 -3.0453372 10.023837
1.3075291 -3.0445385 10.021209
1.3267154 -3.044764 10.021952
1.3458045 -3.0447631 10.021948
1.3649151 -3.0448105 10.022104
1.3843472 -3.0455639 10.024584
1.4037597 -3.0462542 10.026855
1.4230518 -3.0466681 10.028218
1.4425074 -3.047416 10.03068
1.4617927 -3.0477903 10.031911
1.4809012 -3.0477903 10.031911
1.5000095 -3.0477903 10.031911
1.519118 -3.0477903 10.031911
1.5382265 -3.0477903 10.031911
1.5573348 -3.0477903 10.031911
1.5764432 -3.0477903 10.031911
1.595552 -3.0477908 10.031914
1.6146603 -3.0477908 10.031914
1.6337683 -3.0477903 10.031911
1.6528909 -3.0478163 10.031997
1.6723399 -3.0484366 10.034039
1.6914523 -3.0484366 10.034039
1.7105646 -3.0484366 10.034039
1.7296772 -3.0484366 10.034039
1.7487895 -3.0484366 10.034039
1.7679023 -3.0484366 10.034039
1.7870146 -3.0484366 10.034039
1.8061271 -3.0484366 10.034039
1.8252395 -3.0484366 10.034039
1.8443519 -3.0484366 10.034039
1.8630693 -3.0477903 10.031911
1.8821781 -3.0477908 10.031914
1.9012866 -3.0477908 10.031914
1.9209168 -3.048619 10.034639
1.9411744 -3.0504169 10.040558
1.9612713 -3.0519295 10.045536
1.9804935 -3.0520649 10.045981
1.9997172 -3.0521998 10.046426
2.0188687 -3.0522232 10.046503
2.0380042 -3.0522225 10.0465
2.0571401 -3.0522215 10.046497
2.0762761 -3.0522215 10.046497
2.0954118 -3.0522206 10.046494
2.1145477 -3.0522206 10.046494
2.1336839 -3.0522206 10.046494
2.1528201 -3.0522206 10.046494
2.1719563 -3.0522206 10.046494
2.191092 -3.0522199 10.046492
2.2102144 -3.0522008 10.046429
2.2292547 -3.0520699 10.045998
2.2482941 -3.0519395 10.045568
2.2668827 -3.0512049 10.043152
2.2849908 -3.0498412 10.038662
2.303082 -3.0484776 10.034175
2.3221641 -3.0484378 10.034042
2.3412766 -3.0484378 10.034042
2.360389 -3.0484378 10.034042
2.3795016 -3.0484378 10.034042
2.3986139 -3.0484378 10.034042
2.418226 -3.0490675 10.036116
2.438796 -3.0508862 10.042101
2.4589338 -3.0521398 10.046228
2.4768863 -3.0506825 10.041431
2.494822 -3.049227 10.03664
2.5133529 -3.0485156 10.034299
2.5327678 -3.0488782 10.035494
2.552186 -3.0492406 10.036686
2.5718904 -3.0499365 10.038977
2.5920577 -3.0511675 10.043028
2.6118345 -3.0519238 10.045518
2.6310811 -3.0520539 10.045946
2.6503289 -3.0521836 10.046372
2.6694875 -3.0522096 10.046458
2.6886227 -3.0522089 10.046455
2.7077579 -3.0522079 10.046453
2.7268944 -3.0522079 10.046453
2.7460299 -3.0522072 10.04645
2.7651658 -3.0522072 10.04645
2.7843008 -3.052206 10.046446
2.8034368 -3.052206 10.046446
2.8225732 -3.052206 10.046446
2.8417084 -3.0522056 10.046444
2.8613992 -3.0527971 10.048391
2.882257 -3.0546184 10.054386
2.9031527 -3.0564547 10.060431
2.9224324 -3.0565767 10.060833
2.941596 -3.0565767 10.060833
2.9602971 -3.0560997 10.059262
2.9780576 -3.0546639 10.054536
2.9957902 -3.0532174 10.049776
21.253571 -19.426617 63.943409
21.367001 -19.419014 63.918385
21.470507 -19.402527 63.864117
21.489985 -19.310719 63.561928
21.57979 -19.282782 63.469971
21.699135 -19.281404 63.465439
21.820021 -19.281404 63.465439
21.940908 -19.281404 63.465439
22.053841 -19.274452 63.442554
22.162294 -19.263683 63.407104
22.270569 -19.252878 63.371544
22.37878 -19.242134 63.336178
22.473766 -19.220192 63.263954
22.567883 -19.197746 63.190071
22.655148 -19.169743 63.097897
22.745552 -19.144674 63.015385
22.885359 -19.161232 63.069885
23.10363 -19.242971 63.338932
23.319061 -19.221653 63.268768
23.396881 -19.186646 63.153534
23.392429 -19.084873 62.818546
23.464067 -19.045897 62.690254
23.557533 -19.024946 62.621292
23.676813 -19.024946 62.621292
23.796091 -19.024946 62.621292
23.928032 -19.035017 62.654449
24.077759 -19.059069 62.733612
24.261143 -19.109394 62.899261
24.450943 -19.164253 63.07983
24.649599 -19.225481 63.281364
24.837795 -19.277996 63.454224
24.95969 -19.278791 63.456837
25.08156 -19.27956 63.459366
25.201185 -19.278605 63.456223
25.278547 -19.245481 63.347198
25.341492 -19.201748 63.203247
25.153824 -18.446136 60.716125
25.299797 -18.468273 60.788986
25.487514 -18.520542 60.961029
26.761074 -18.928564 62.304054
6.6103358 -3.7994542 12.506041
6.6932445 -3.7656877 12.394897
6.9596429 -3.8344147 12.621115
6.943924 -3.8125846 12.549259
6.9579325 -3.8071709 12.531441
6.9682031 -3.7997551 12.50703
6.9786034 -3.7924604 12.483021
6.9889646 -3.7851949 12.459105
7.000556 -3.7786417 12.437535
7.0133314 -3.7727709 12.418211
7.0301552 -3.7691083 12.406157
7.0537858 -3.7691083 12.406157
7.0803251 -3.7706575 12.411255
7.1062717 -3.7718816 12.415284
7.1293998 -3.7716064 12.414378
7.1525249 -3.7713313 12.413473
7.1783791 -3.7724924 12.417295
7.2044091 -3.7737384 12.421396
7.2280693 -3.7737384 12.421396
7.251729 -3.7737384 12.421396
7.2753887 -3.7737384 12.421396
7.2990489 -3.7737384 12.421396
7.3227081 -3.7737384 12.421396
7.3463683 -3.7737384 12.421396
-7.65977 -3.8603296 12.78658
-7.6382875 -3.8617816 12.79139
-7.6167603 -3.8632212 12.796158
-7.5934606 -3.8637676 12.797968
-7.5701561 -3.8643148 12.79978
-7.0491419 -3.76826 12.481618
-7.01684 -3.7636855 12.466467
-6.9846158 -3.7591228 12.451353
-6.9577913 -3.7574444 12.445793
-6.9362431 -3.7586141 12.449667
-6.9177122 -3.7614319 12.459002
-6.8996949 -3.7645495 12.469328
-6.8816476 -3.7676725 12.479672
-6.8635707 -3.7708006 12.490033
-6.8345423 -3.7679129 12.480469
-6.7976513 -3.7606552 12.456429
-6.7685604 -3.7576771 12.446565
-6.745791 -3.7582002 12.448297
-6.7262402 -3.7605259 12.455999
-6.707242 -3.7631786 12.464787
-6.6882157 -3.7658339 12.473582
-6.6691666 -3.7684953 12.482397
-6.6475534 -3.769722 12.48646
-6.6237698 -3.769722 12.48646
-6.5999861 -3.769722 12.48646
-6.5737286 -3.7683039 12.481764
-6.5497065 -3.7681613 12.481291
-6.5282259 -3.7694857 12.485678
-6.5036373 -3.7690184 12.48413
-6.4783583 -3.7681463 12.481241
-6.4517784 -3.7665081 12.475815
-6.4218216 -3.7628789 12.463794
-6.3919234 -3.7592576 12.451799
-6.3652935 -3.7575378 12.446103
-6.3389802 -3.7559938 12.440989
-6.3126187 -3.7544096 12.435741
-6.2902021 -3.7551675 12.438251
-6.2690811 -3.7567089 12.443357
-6.2465124 -3.75739 12.445613
-6.2228098 -3.7573919 12.44562
-6.2010279 -3.7585578 12.449482
-6.1828384 -3.761919 12.460615
-6.1647091 -3.7653432 12.471956
-6.1448007 -3.7677021 12.479771
-6.1234546 -3.7691941 12.484713
-6.0999775 -3.7693815 12.485333
-6.0764971 -3.7695684 12.485952
-6.0538745 -3.7702913 12.488346
-6.0335054 -3.7724283 12.495424
-6.0131121 -3.7745676 12.50251
-5.9908972 -3.7755756 12.50585
-5.9670773 -3.7755756 12.50585
-5.9378343 -3.7721314 12.494441
-5.9112377 -3.7703469 12.488531
-5.8893018 -3.7715328 12.492458
-5.8673496 -3.7727177 12.496384
-5.8442059 -3.7731431 12.497792
-5.8203645 -3.7731197 12.497715
-5.7965231 -3.7730961 12.497637
-5.7742977 -3.7741289 12.501058
-5.7510309 -3.7744861 12.502241
-5.7253795 -3.7732749 12.49823
-5.6995201 -3.7719166 12.49373
-5.6738491 -3.7706711 12.489605
-5.6489654 -3.7699411 12.487186
-5.6251802 -3.7699411 12.487186
-5.6012802 -3.7698641 12.486931
-5.577364 -3.7697749 12.486637
-5.5538263 -3.7699423 12.48719
-5.5316334 -3.7710276 12.490786
-5.5070639 -3.7704949 12.489021
-5.4757175 -3.7652984 12.471808
-5.4468651 -3.7617781 12.460148
-5.4258437 -3.7636595 12.466381
-5.4048023 -3.7655437 12.472621
-5.3837371 -3.7674274 12.478861
-5.3626533 -3.7693152 12.485113
-5.3391953 -3.7695434 12.485868
-5.3151417 -3.7693512 12.485232
-5.2908778 -3.7690072 12.484094
-5.2639914 -3.7667842 12.476729
-5.2395611 -3.7663059 12.475146
-5.2157993 -3.7663059 12.475146
-5.1920371 -3.7663059 12.475146
-5.1682749 -3.7663059 12.475146
-5.141614 -3.7641838 12.468117
-5.1134062 -3.7609048 12.457255
-5.0895004 -3.7607732 12.45682
-5.0655966 -3.7606421 12.456385
-5.042099 -3.7608125 12.45695
-5.0187187 -3.7610726 12.457811
-4.9949889 -3.7610726 12.457811
-4.9712601 -3.7610726 12.457811
-4.9517088 -3.7642488 12.468332
-4.9346666 -3.769372 12.485302
-4.9167304 -3.7738583 12.500161
-4.8989935 -3.7785425 12.515677
-4.8812137 -3.7832389 12.531233
-4.8633895 -3.7879469 12.546827
-3.454046 -3.0330541 10.046394
-3.4349098 -3.0330541 10.046394
-3.4157753 -3.0330553 10.046397
-3.3966401 -3.033056 10.0464
-3.3775039 -3.033056 10.0464
-3.3583691 -3.0330572 10.046404
-3.3392332 -3.0330572 10.046404
-3.3200979 -3.0330577 10.046406
-3.3009627 -3.0330586 10.046408
-3.2818267 -3.0330586 10.046408
-3.2626917 -3.0330596 10.046412
-3.2435558 -3.0330596 10.046412
-3.2244205 -3.0330606 10.046414
-3.2052855 -3.0330613 10.046417
-3.1861496 -3.0330613 10.046417
-3.1669145 -3.0329669 10.046104
-3.1477008 -3.0328913 10.045854
-3.1285853 -3.0329099 10.045916
-3.1095762 -3.0330327 10.046322
-3.090472 -3.0330639 10.046426
-3.0713367 -3.0330646 10.046429
-3.0522008 -3.0330646 10.046429
-3.0330646 -3.0330646 10.046429
-3.0139298 -3.0330658 10.046432
-2.9947946 -3.0330667 10.046435
-2.9756591 -3.0330677 10.046438
-2.9565234 -3.0330677 10.046438
-2.9357884 -3.0314164 10.04097
-2.9151676 -3.0298626 10.035822
-2.8953454 -3.0291238 10.033375
-2.876235 -3.0291245 10.033378
-2.8571248 -3.0291257 10.033381
-2.8380144 -3.0291262 10.033383
-2.818903 -3.0291262 10.033383
-2.7997923 -3.0291271 10.033386
-2.7806811 -3.0291271 10.033386
-2.7612889 -3.0288186 10.032364
-2.7420566 -3.0286825 10.031914
-2.7229481 -3.0286825 10.031914
-2.7038395 -3.0286825 10.031914
-2.6847312 -3.0286825 10.031914
-2.6656227 -3.0286825 10.031914
-2.6465144 -3.0286825 10.031914
-2.6274061 -3.0286825 10.031914
-2.6082973 -3.0286825 10.031914
-2.5891891 -3.0286825 10.031914
-2.5700808 -3.0286825 10.031914
-2.5509725 -3.0286825 10.031914
-2.5318642 -3.0286825 10.031914
-2.5127554 -3.0286825 10.031914
-2.4936471 -3.0286825 10.031914
-2.4745388 -3.0286825 10.031914
-2.4554303 -3.0286825 10.031914
-2.4363217 -3.0286825 10.031914
-2.4172134 -3.0286825 10.031914
-2.3981049 -3.0286825 10.031914
-2.3789966 -3.0286825 10.031914
-2.3598881 -3.0286825 10.031914
-2.3407798 -3.0286825 10.031914
-2.3216715 -3.0286825 10.031914
-2.302563 -3.0286825 10.031914
-2.2834547 -3.0286825 10.031914
-2.2643461 -3.0286825 10.031914
-2.2452378 -3.0286825 10.031914
-2.2261293 -3.0286825 10.031914
-2.2065024 -3.027971 10.029556
-2.1873181 -3.0278592 10.029187
-2.1680312 -3.0276034 10.028338
-2.1484187 -3.0268831 10.025953
-2.1288331 -3.0261889 10.023653
-2.1095958 -3.0259814 10.022966
-2.0908215 -3.0264404 10.024487
-2.0721507 -3.0270591 10.026536
-2.0530527 -3.0270591 10.026536
-2.0339544 -3.0270591 10.026536
-2.0148563 -3.0270591 10.026536
-1.9955821 -3.026792 10.025652
-1.9760324 -3.026098 10.023354
-1.9568651 -3.0259814 10.022966
-1.9377735 -3.0259814 10.022966
-1.9186823 -3.0259814 10.022966
-1.8995069 -3.0258477 10.022524
-1.8799491 -3.0250957 10.020033
-1.8602383 -3.0240798 10.016668
-1.8408836 -3.0236278 10.015171
-1.8218071 -3.0236278 10.015171
-1.8026127 -3.0234299 10.014515
-1.7835374 -3.0234299 10.014515
-1.7646974 -3.023833 10.01585
-1.7461591 -3.0247676 10.018946
-1.7270755 -3.0247676 10.018946
-1.7079916 -3.0247676 10.018946
-1.6892074 -3.0253038 10.020722
-1.6704946 -3.0259814 10.022966
-1.6513771 -3.0259342 10.02281
-1.6318823 -3.0251856 10.02033
-1.6125731 -3.0247676 10.018946
-1.5931021 -3.0240324 10.01651
-1.5732144 -3.0224786 10.011364
-1.5533471 -3.0209267 10.006224
-1.5349438 -3.0222187 10.010504
-1.5164826 -3.0234277 10.014507
-1.4974074 -3.0234277 10.014507
-1.4783322 -3.0234277 10.014507
-1.4593141 -3.0235462 10.014901
-1.4402773 -3.023629 10.015174
-1.4212008 -3.023629 10.015174
-1.4021239 -3.0236278 10.015171
-1.3830473 -3.0236278 10.015171
-1.3639416 -3.0235629 10.014956
-1.3448048 -3.0234263 10.014503
-1.3257296 -3.0234268 10.014505
-1.3066545 -3.0234268 10.014505
-1.2875794 -3.0234268 10.014505
-1.2685066 -3.0234334 10.014526
-1.2494357 -3.0234437 10.014562
-1.229772 -3.0219979 10.009771
-1.2103205 -3.0210361 10.006586
-1.1912603 -3.0210361 10.006586
-1.1722001 -3.0210361 10.006586
-1.1530747 -3.0208657 10.006021
-1.1340098 -3.0208497 10.005969
-1.1149505 -3.020849 10.005966
-1.0960517 -3.0212903 10.007428
-1.077507 -3.0227411 10.012234
-1.0589445 -3.0241928 10.017042
-1.0400616 -3.0247664 10.018942
-1.020978 -3.0247664 10.018942
-1.0018942 -3.0247664 10.018942
-0.98281056 -3.0247664 10.018942
-0.96372676 -3.0247664 10.018942
-0.94447148 -3.0242169 10.017122
-0.92492312 -3.022687 10.012054
-0.90539485 -3.0211594 10.006995
-0.88629901 -3.0210409 10.006601
-0.86730742 -3.0212798 10.007393
-0.84830439 -3.0214887 10.008086
-0.82957387 -3.0227003 10.012098
-0.81085539 -3.0240135 10.016449
-0.79197353 -3.0247664 10.018942
-0.77288985 -3.0247664 10.018942
-0.75380617 -3.0247664 10.018942
-0.73472238 -3.0247664 10.018942
-0.71563876 -3.0247664 10.018942
-0.69647169 -3.0244043 10.017743
-0.67705035 -3.0228868 10.012716
-0.65764844 -3.0213704 10.007694
-0.63850927 -3.0210066 10.006489
-0.61949843 -3.0212462 10.007282
-0.60045218 -3.0213232 10.007536
-0.58162516 -3.0225439 10.01158
-0.56279588 -3.0238354 10.015859
-0.54398251 -3.0253062 10.020731
-0.52515078 -3.0267777 10.025605
-0.50620002 -3.0276492 10.028491
-0.48713183 -3.0278587 10.029184
-0.46805325 -3.0280182 10.029713
-0.44904742 -3.0286818 10.031911
-0.42993906 -3.0286818 10.031911
-0.41083065 -3.0286818 10.031911
-0.39172226 -3.0286818 10.031911
-0.37261385 -3.0286818 10.031911
-0.35350543 -3.0286818 10.031911
-0.33439708 -3.0286818 10.031911
-0.31528863 -3.0286818 10.031911
-0.29618025 -3.0286818 10.031911
-0.27707183 -3.0286818 10.031911
-0.25796342 -3.0286818 10.031911
-0.23885503 -3.0286818 10.031911
-0.21974665 -3.0286818 10.031911
-0.2006382 -3.0286818 10.031911
-0.18152982 -3.0286818 10.031911
-0.16242144 -3.0286818 10.031911
-0.14331302 -3.0286818 10.031911
-0.12420461 -3.0286818 10.031911
-0.10509621 -3.0286818 10.031911
-0.086023279 -3.0299308 10.036049
-0.06692902 -3.0309286 10.039353
-0.047803529 -3.0307436 10.03874
-0.028667428 -3.0291915 10.033599
-0.0095542008 -3.0286818 10.031911
0.0095568644 -3.0295262 10.034708
0.028683867 -3.0309286 10.039353
0.047806446 -3.0309286 10.039353
0.066898897 -3.0295644 10.034834
0.085987806 -3.0286818 10.031911
0.1051101 -3.0290821 10.033237
0.12428474 -3.0306358 10.038383
0.14341117 -3.030756 10.038782
0.16253266 -3.030756 10.038782
0.18165416 -3.030756 10.038782
0.20077564 -3.030756 10.038782
0.21989715 -3.030756 10.038782
0.23901863 -3.030756 10.038782
0.25814459 -3.0308089 10.038957
0.27728888 -3.0310547 10.03977
0.29657882 -3.0327578 10.045412
0.31574899 -3.0331039 10.046558
0.3348853 -3.0331039 10.046558
0.35402155 -3.0331039 10.046558
0.37315789 -3.0331039 10.046558
0.39229417 -3.0331039 10.046558
0.41141981 -3.033025 10.046297
0.43046778 -3.0324063 10.044249
0.44937098 -3.030864 10.039139
0.46849504 -3.0308762 10.039179
0.48762563 -3.0309281 10.039351
0.50666809 -3.0304489 10.037765
0.52552253 -3.0289209 10.032702
0.54458946 -3.0286818 10.031911
0.56369787 -3.0286818 10.031911
0.58280629 -3.0286818 10.031911
0.60191464 -3.0286818 10.031911
0.62102306 -3.0286818 10.031911
0.64013147 -3.0286818 10.031911
0.65938723 -3.0293589 10.034155
0.67881292 -3.030756 10.038782
0.69793439 -3.030756 10.038782
0.71677804 -3.029582 10.034893
0.73567343 -3.0286818 10.031911
0.7547819 -3.0286818 10.031911
0.77389032 -3.0286818 10.031911
0.79299867 -3.0286818 10.031911
0.81210709 -3.0286818 10.031911
0.83121544 -3.0286818 10.031911
0.85032392 -3.0286818 10.031911
0.86943233 -3.0286818 10.031911
0.88854069 -3.0286818 10.031911
0.9076491 -3.0286818 10.031911
0.92675751 -3.0286818 10.031911
0.94586587 -3.0286818 10.031911
0.96497428 -3.0286818 10.031911
0.98408276 -3.0286818 10.031911
1.0031911 -3.0286818 10.031911
1.0222995 -3.0286818 10.031911
1.0414078 -3.0286818 10.031911
1.0605164 -3.0286818 10.031911
1.0796248 -3.0286818 10.031911
1.0987331 -3.0286818 10.031911
1.1178415 -3.0286818 10.031911
1.13695 -3.0286818 10.031911
1.1560583 -3.0286818 10.031911
1.1751667 -3.0286818 10.031911
1.1942751 -3.0286818 10.031911
1.2133836 -3.0286818 10.031911
1.232492 -3.0286818 10.031911
1.2516004 -3.0286818 10.031911
1.2704133 -3.0279775 10.029578
1.2890823 -3.0269561 10.026196
1.3078508 -3.0261948 10.023674
1.3272562 -3.0269084 10.026036
1.3464202 -3.0270581 10.026533
1.3655185 -3.0270581 10.026533
1.3846745 -3.027185 10.026953
1.4040859 -3.0278587 10.029184
1.423189 -3.0278587 10.029184
1.4425074 -3.0283098 10.03068
1.4617927 -3.0286818 10.031911
1.4809012 -3.0286818 10.031911
1.5000095 -3.0286818 10.031911
1.519118 -3.0286818 10.031911
1.5382265 -3.0286818 10.031911
1.5573348 -3.0286818 10.031911
1.5764432 -3.0286818 10.031911
1.5955515 -3.0286818 10.031911
1.6146599 -3.0286818 10.031911
1.6337683 -3.0286818 10.031911
1.6528909 -3.0287077 10.031997
1.6728947 -3.030329 10.037367
1.6922519 -3.030756 10.038782
1.7113733 -3.030756 10.038782
1.730495 -3.030756 10.038782
1.7496163 -3.030756 10.038782
1.7687379 -3.030756 10.038782
1.7878593 -3.030756 10.038782
1.806981 -3.030756 10.038782
1.8261023 -3.030756 10.038782
1.8452238 -3.030756 10.038782
1.8638418 -3.0299375 10.03607
1.8821781 -3.0286825 10.031914
1.9012866 -3.0286825 10.031914
1.9203949 -3.0286825 10.031914
1.9400303 -3.0295057 10.034639
1.9603378 -3.0313516 10.040754
1.9804935 -3.0329297 10.045981
1.9997172 -3.0330639 10.046426
2.0188687 -3.0330873 10.046503
2.0380049 -3.0330873 10.046503
2.0571404 -3.0330863 10.0465
2.0762761 -3.0330853 10.046497
2.0954125 -3.0330853 10.046497
2.1145484 -3.0330853 10.046497
2.1336839 -3.0330846 10.046494
2.1528201 -3.0330846 10.046494
2.1719563 -3.0330846 10.046494
2.1910925 -3.0330846 10.046494
2.2102282 -3.0330837 10.046492
2.2293501 -3.0330646 10.046429
2.24839 -3.0329347 10.045998
2.2674284 -3.032805 10.045568
2.2860126 -3.0320752 10.043152
2.3041401 -3.030757 10.038785
2.3232617 -3.030757 10.038785
2.3423831 -3.030757 10.038785
2.3615046 -3.030757 10.038785
2.3806262 -3.030757 10.038785
2.3997476 -3.030757 10.038785
2.4189446 -3.0308514 10.039099
2.438796 -3.0317581 10.042101
2.4589937 -3.033078 10.046473
2.4780676 -3.0330017 10.04622
2.4960115 -3.0315542 10.041426
2.514607 -3.0309143 10.039306
2.5337987 -3.0309968 10.039579
2.5532248 -3.0313568 10.040771
2.5723624 -3.0313711 10.040819
2.5921731 -3.0321732 10.043476
2.6119268 -3.0328968 10.045873
2.6310816 -3.0329194 10.045948
2.6503296 -3.0330486 10.046375
2.6694875 -3.0330734 10.046458
2.6886237 -3.0330734 10.046458
2.7077589 -3.0330729 10.046455
2.7268944 -3.0330718 10.046453
2.7460303 -3.0330718 10.046453
2.7651658 -3.033071 10.04645
2.7843018 -3.033071 10.04645
2.8034368 -3.0330701 10.046446
2.8225732 -3.0330701 10.046446
2.8417091 -3.0330701 10.046446
2.8613992 -3.0336573 10.048391
2.882257 -3.0354669 10.054386
2.9031527 -3.037292 10.060431
2.9224324 -3.0374134 10.060833
2.941596 -3.0374134 10.060833
2.9607594 -3.0374134 10.060833
2.9794576 -3.0369391 10.059262
2.9972091 -3.0355122 10.054536
21.595936 -19.393518 64.237206
21.594601 -19.283068 63.871353
21.597204 -19.177349 63.521187
21.699135 -19.160519 63.465439
21.820021 -19.160519 63.465439
21.940908 -19.160519 63.465439
22.061796 -19.160519 63.465439
22.171463 -19.150827 63.433342
22.280806 -19.140963 63.400665
22.389385 -19.130552 63.366184
22.483727 -19.10815 63.291985
22.568998 -19.078327 63.193192
22.655148 -19.049557 63.097897
22.745552 -19.024645 63.015385
22.885359 -19.0411 63.069885
23.107231 -19.125305 63.348804
23.240925 -19.136034 63.384338
23.319061 -19.101141 63.268768
23.396881 -19.066353 63.153534
23.424061 -18.990864 62.903488
23.511496 -18.964743 62.816967
23.605888 -18.944471 62.749828
23.725412 -18.944471 62.749828
23.844936 -18.944471 62.749828
23.964458 -18.944471 62.749828
24.141193 -18.989471 62.898884
24.332401 -19.045361 63.084
24.528913 -19.10483 63.280983
24.721298 -19.160519 63.465439
24.842667 -19.160891 63.466675
24.964676 -19.161749 63.469513
25.086725 -19.16263 63.472435
25.160652 -19.126923 63.354156
25.221319 -19.081524 63.203781
25.140467 -18.576988 61.532612
25.18714 -18.525112 61.360783
6.6103191 -3.7892792 12.55124
6.6103358 -3.7756333 12.506041
6.6890836 -3.7266076 12.343653
6.9160457 -3.7865055 12.542052
6.9267626 -3.7793179 12.518245
6.937439 -3.7721584 12.494531
6.9356208 -3.7582767 12.44855
6.9565101 -3.7567523 12.443501
6.9714732 -3.7520494 12.427923
6.9838438 -3.7459874 12.407845
6.9989119 -3.7414086 12.392678
7.0225182 -3.7414086 12.392678
7.046123 -3.7414086 12.392678
7.0712719 -3.7422261 12.395386
7.0990825 -3.7444413 12.402723
7.1261935 -3.7462745 12.408795
7.1493092 -3.7460017 12.407892
7.174542 -3.7468367 12.410658
7.2020311 -3.7488408 12.417295
7.2280693 -3.7500787 12.421396
7.251729 -3.7500787 12.421396
7.2753887 -3.7500787 12.421396
7.2990489 -3.7500787 12.421396
7.3227081 -3.7500787 12.421396
7.3463683 -3.7500787 12.421396
-7.6551695 -3.8336701 12.7789
-7.6336985 -3.8351116 12.783705
-7.6122098 -3.8365541 12.788513
-7.5906096 -3.837949 12.793163
-7.5673151 -3.8384936 12.794977
-7.0319672 -3.7480025 12.493342
-6.9996529 -3.743448 12.47816
-6.9662452 -3.7382746 12.460915
-6.9480553 -3.7412605 12.470867
-6.9307823 -3.7447624 12.482542
-6.9130707 -3.7480502 12.493501
-6.8949986 -3.7511654 12.503883
-6.8768983 -3.7542858 12.514286
-6.8573451 -3.7566328 12.522108
-6.8262329 -3.7526414 12.508803
-6.7922411 -3.7470331 12.49011
-6.7568974 -3.7406378 12.468792
-6.7348714 -3.7415953 12.471983
-6.7158566 -3.7442386 12.480795
-6.6968145 -3.746886 12.489619
-6.6777439 -3.7495351 12.49845
-6.6582203 -3.7519493 12.506496
-6.6343994 -3.7519493 12.506496
-6.6098218 -3.7515209 12.505069
-6.5831323 -3.7498856 12.499619
-6.5572147 -3.7486801 12.4956
-6.5358305 -3.750067 12.500223
-6.5143356 -3.7513998 12.504665
-6.4906688 -3.7514875 12.504958
-6.4653502 -3.750618 12.50206
-6.4362993 -3.7475679 12.491893
-6.4063196 -3.7439535 12.479844
-6.3757248 -3.7399502 12.466499
-6.3444881 -3.7355399 12.451799
-6.318119 -3.733973 12.446576
